0.005242811 -0.8996609 0.4365578 0 0 0 0
0.005218299 -0.8996553 0.4365697 0 0 0 0
0.005219043 -0.899659 0.4365621 0 0 0 0
0.00521176 -0.8996627 0.4365547 0 0 0 0
0.005242777 -0.8996609 0.4365578 0 0 0 0
-0.003744395 0.9005318 -0.434774 0 0 0 0
-0.003802233 0.9010217 -0.4337574 0 0 0 0
-0.003409141 0.9011837 -0.4334238 0 0 0 0
-0.003178398 0.9010333 -0.4337384 0 0 0 0
-0.003744382 0.9005318 -0.434774 0 0 0 0
0.005371333 -0.900974 0.43384 0 0 0 0
0.004531075 -0.9016465 0.4324501 0 0 0 0
0.004812707 -0.9019043 0.4319091 0 0 0 0
0.00541481 -0.9016891 0.4323512 0 0 0 0
0.00537133 -0.900974 0.43384 0 0 0 0
-0.004398541 0.9004245 -0.4349901 0 0 0 0
-0.003545559 0.9004953 -0.4348513 0 0 0 0
-0.003292343 0.9003737 -0.4351051 0 0 0 0
-0.003670131 0.9002768 -0.4353024 0 0 0 0
-0.004398566 0.9004245 -0.4349901 0 0 0 0
-0.00137199 -0.897707 0.440591 0 0 0 0
-0.003305919 -0.8972621 0.4414859 0 0 0 0
-0.004481659 -0.8975526 0.4408846 0 0 0 0
-0.003652205 -0.8979312 0.4401208 0 0 0 0
-0.001372002 -0.8977069 0.440591 0 0 0 0
0.002759343 0.8994197 -0.4370773 0 0 0 0
0.002341274 0.900103 -0.4356709 0 0 0 0
0.002622636 0.9003063 -0.435249 0 0 0 0
0.002919924 0.9000345 -0.4358087 0 0 0 0
0.002759331 0.8994197 -0.4370773 0 0 0 0
0.001670885 -0.8964683 0.4431047 0 0 0 0
0.003134771 -0.8954327 0.445186 0 0 0 0
0.002671151 -0.8950049 0.4460483 0 0 0 0
0.001622344 -0.8953974 0.4452649 0 0 0 0
0.001670883 -0.8964683 0.4431046 0 0 0 0
-0.5750036 0.3552581 0.7369956 0 0 0 0
-0.5753565 0.3560026 0.7363607 0 0 0 0
-0.5756267 0.3560528 0.7361252 0 0 0 0
-0.5756525 0.3557068 0.7362723 0 0 0 0
-0.5750036 0.3552581 0.7369956 0 0 0 0
-0.003064109 -0.9000469 0.4357824 0 0 0 0
-0.00439548 -0.8997785 0.4363247 0 0 0 0
-0.00506953 -0.8999569 0.4359494 0 0 0 0
-0.004570978 -0.9001691 0.4355166 0 0 0 0
-0.003064112 -0.9000468 0.4357824 0 0 0 0
0.005581209 0.9017992 -0.4321192 0 0 0 0
0.005564518 0.9025634 -0.4305211 0 0 0 0
0.006297398 0.9028082 -0.4299973 0 0 0 0
0.006614009 0.9025403 -0.4305548 0 0 0 0
0.005581198 0.9017993 -0.4321192 0 0 0 0
0.005457004 -0.8968172 0.4423677 0 0 0 0
0.006677359 -0.8973227 0.4413246 0 0 0 0
0.007399375 -0.8973084 0.4413422 0 0 0 0
0.007061975 -0.8969846 0.4420055 0 0 0 0
0.005457024 -0.8968172 0.4423677 0 0 0 0
0.0002462675 -0.9016497 0.4324673 0 0 0 0
-0.0001020639 -0.9019025 0.4319397 0 0 0 0
9.600679E-06 -0.9020066 0.4317222 0 0 0 0
0.0002531096 -0.9019172 0.4319091 0 0 0 0
0.0002462505 -0.9016496 0.4324673 0 0 0 0
0.5739613 -0.3570598 -0.7369375 0 0 0 0
0.5738236 -0.3573873 -0.736886 0 0 0 0
0.5737383 -0.3574158 -0.7369385 0 0 0 0
0.5737462 -0.3572886 -0.736994 0 0 0 0
0.5739613 -0.3570598 -0.7369375 0 0 0 0
0.002470706 0.9021185 -0.4314814 0 0 0 0
0.00246713 0.9021181 -0.4314821 0 0 0 0
0.002475596 0.9021182 -0.4314819 0 0 0 0
0.002467088 0.9021193 -0.4314797 0 0 0 0
0.002470749 0.9021185 -0.4314814 0 0 0 0
-0.006399863 -0.9007703 0.4342487 0 0 0 0
-0.007559345 -0.9007414 0.43429 0 0 0 0
-0.007734148 -0.9009327 0.43389 0 0 0 0
-0.007385405 -0.9009719 0.4338146 0 0 0 0
-0.006399835 -0.9007704 0.4342487 0 0 0 0
0.005046038 0.9015581 -0.4326288 0 0 0 0
0.00591292 0.9025892 -0.4304624 0 0 0 0
0.007182168 0.9026559 -0.4303032 0 0 0 0
0.007245591 0.9023418 -0.4309602 0 0 0 0
0.005046037 0.9015581 -0.4326288 0 0 0 0
0.004681577 -0.8985081 0.438932 0 0 0 0
0.007507813 -0.8974831 0.440985 0 0 0 0
0.007397501 -0.8971051 0.4417553 0 0 0 0
0.005837681 -0.8972196 0.441546 0 0 0 0
0.004681593 -0.8985081 0.438932 0 0 0 0
-0.005389523 0.900212 -0.4354185 0 0 0 0
-0.008102261 0.8995785 -0.4366839 0 0 0 0
-0.009324209 0.8996776 -0.4364555 0 0 0 0
-0.008830817 0.9003456 -0.4350861 0 0 0 0
-0.005389528 0.900212 -0.4354185 0 0 0 0
-0.5589675 0.3870586 0.7333083 0 0 0 0
-0.558054 0.3873268 0.7338622 0 0 0 0
-0.5581391 0.3873063 0.7338083 0 0 0 0
-0.5589675 0.3870586 0.7333083 0 0 0 0
-0.5604726 0.3866102 0.7323954 0 0 0 0
-0.5607549 0.3874354 0.731743 0 0 0 0
-0.5597104 0.3877493 0.7323761 0 0 0 0
-0.5591915 0.3879106 0.7326871 0 0 0 0
-0.5593414 0.3878725 0.7325928 0 0 0 0
-0.5607549 0.3874355 0.731743 0 0 0 0
-0.8802008 0.218594 0.421264 0 0 0 0
-0.8802007 0.218594 0.421264 0 0 0 0
0.5684779 -0.4328477 -0.6996255 0 0 0 0
0.5684779 -0.4328477 -0.6996255 0 0 0 0
0.8033386 -0.2717205 -0.5299199 0 0 0 0
0.8033386 -0.2717205 -0.5299199 0 0 0 0
-0.07228748 0.9398038 -0.3339812 0 0 0 0
-0.07228747 0.9398037 -0.3339812 0 0 0 0
-0.5410277 -0.3843581 -0.748036 0 0 0 0
-0.5410278 -0.3843581 -0.748036 0 0 0 0
0.4007324 -0.3970694 -0.8256812 0 0 0 0
0.4007324 -0.3970694 -0.8256812 0 0 0 0
0.8002746 -0.2540963 -0.5431352 0 0 0 0
0.8002746 -0.2540963 -0.5431352 0 0 0 0
0.5728037 -0.3589127 -0.7369381 0 0 0 0
0.5728037 -0.3589127 -0.7369381 0 0 0 0
-0.5876825 0.3495025 0.7297103 0 0 0 0
-0.5876826 0.3495026 0.7297104 0 0 0 0
-0.5670732 0.3570095 0.742275 0 0 0 0
-0.5670733 0.3570095 0.742275 0 0 0 0
0.8097023 0.3749116 0.4514681 0 0 0 0
0.8097023 0.3749115 0.4514681 0 0 0 0
-0.752408 -0.2909541 -0.5909552 0 0 0 0
-0.752408 -0.2909541 -0.5909551 0 0 0 0
0.6462183 0.3338229 0.6862683 0 0 0 0
0.6462183 0.3338229 0.6862683 0 0 0 0
-0.8149676 -0.1531195 -0.5589118 0 0 0 0
-0.8149675 -0.1531195 -0.5589118 0 0 0 0
0.9633971 0.1173906 0.2410091 0 0 0 0
0.9633972 0.1173906 0.2410091 0 0 0 0
-0.8267903 -0.2872551 -0.4836344 0 0 0 0
-0.8267903 -0.2872551 -0.4836344 0 0 0 0
-0.5908879 -0.4069081 -0.6966185 0 0 0 0
-0.5908879 -0.4069081 -0.6966185 0 0 0 0
0.9546889 0.01717938 -0.2971094 0 0 0 0
0.9546889 0.01717937 -0.2971095 0 0 0 0
-0.9913304 0.1312716 -0.005635661 0 0 0 0
-0.9913304 0.1312716 -0.005635661 0 0 0 0
0.826928 0.2481983 0.5045669 0 0 0 0
0.826928 0.2481983 0.5045668 0 0 0 0
0.8197411 0.2530916 0.5137793 0 0 0 0
0.3284308 0.651473 0.6838977 0 0 0 0
0.004574333 -0.898797 0.4383411 0 0 0 0
0.004574327 -0.898797 0.4383412 0 0 0 0
0.005965798 -0.8992372 0.4374208 0 0 0 0
0.005965824 -0.8992372 0.4374208 0 0 0 0
0.5727589 -0.3546282 -0.7390441 0 0 0 0
0.5727589 -0.3546282 -0.7390441 0 0 0 0
-0.5756019 0.3540806 0.7370954 0 0 0 0
-0.5756018 0.3540806 0.7370953 0 0 0 0
