0.02053374 -0.9081581 -0.4181235 0 0 0 0
-0.1426459 -0.8240132 -0.5483198 0 0 0 0
-0.3551033 -0.6312811 -0.6894823 0 0 0 0
-0.5687473 -0.2728127 -0.7759508 0 0 0 0
0.006633779 0.9159274 0.4012892 0 0 0 0
0.04456544 0.9196627 0.3901724 0 0 0 0
0.06623126 -0.9653229 -0.2525178 0 0 0 0
0.07139754 -0.9633535 -0.2585586 0 0 0 0
0.07302498 -0.9618288 -0.2637287 0 0 0 0
-0.1360992 0.9384792 0.3173859 0 0 0 0
-0.3020304 0.939705 0.1604127 0 0 0 0
-0.515101 0.8542023 -0.07077738 0 0 0 0
-0.7190853 0.6003371 -0.3500167 0 0 0 0
-0.1201234 0.9494004 0.2901884 0 0 0 0
-0.1115168 0.9611684 0.2524268 0 0 0 0
-0.04218363 -0.9364504 -0.3482544 0 0 0 0
-0.03639158 -0.9347401 -0.3534636 0 0 0 0
-0.03136283 -0.9342943 -0.3551205 0 0 0 0
0.009061877 -0.9458448 -0.3244928 0 0 0 0
0.009116892 -0.9457808 -0.3246776 0 0 0 0
0.009522915 -0.9456062 -0.3251742 0 0 0 0
0.01064274 -0.9453033 -0.3260193 0 0 0 0
-0.03681608 0.9531338 0.3003009 0 0 0 0
-0.0370039 0.9531057 0.3003667 0 0 0 0
-0.03748631 0.9529537 0.3007891 0 0 0 0
-0.03827915 0.952561 0.3019309 0 0 0 0
-0.6738473 -0.2363168 0.7000602 0 0 0 0
-0.6735103 -0.2361578 0.7004381 0 0 0 0
-0.673093 -0.2363104 0.7007876 0 0 0 0
-0.6725841 -0.236916 0.7010717 0 0 0 0
-0.6722673 -0.238239 0.7009273 0 0 0 0
-0.6720798 -0.236941 0.7015467 0 0 0 0
-0.6723105 -0.2368333 0.7013619 0 0 0 0
-0.6725841 -0.236916 0.7010717 0 0 0 0
-0.672884 -0.2373315 0.7006432 0 0 0 0
-0.6729167 -0.2383352 0.700271 0 0 0 0
-0.6707407 -0.2475539 0.6991596 0 0 0 0
-0.6708223 -0.2472041 0.6992049 0 0 0 0
-0.6707689 -0.2472364 0.6992449 0 0 0 0
-0.6707407 -0.2475539 0.6991596 0 0 0 0
-0.6704674 -0.2494014 0.6987649 0 0 0 0
0.674753 0.2466001 -0.695627 0 0 0 0
0.6746961 0.246277 -0.6957966 0 0 0 0
0.6747495 0.2462909 -0.6957398 0 0 0 0
0.674753 0.2466001 -0.695627 0 0 0 0
0.6748804 0.2483314 -0.694887 0 0 0 0
0.6645761 0.2510478 -0.7037852 0 0 0 0
0.6666226 0.2497894 -0.702296 0 0 0 0
0.6667583 0.2485196 -0.7026175 0 0 0 0
0.6654226 0.2489789 -0.7037203 0 0 0 0
0.6645761 0.2510478 -0.7037852 0 0 0 0
-0.6807494 -0.2467996 0.6896886 0 0 0 0
-0.6787904 -0.2465981 0.6916885 0 0 0 0
-0.6787024 -0.2453788 0.6922083 0 0 0 0
-0.6800129 -0.2451436 0.6910044 0 0 0 0
-0.6807494 -0.2467996 0.6896886 0 0 0 0
0.02150678 -0.9531054 -0.3018734 0 0 0 0
0.01829527 -0.9535271 -0.3007515 0 0 0 0
0.01502333 -0.9536693 -0.3004817 0 0 0 0
0.01053461 -0.9533942 -0.3015436 0 0 0 0
0.004473879 -0.9514614 -0.3077356 0 0 0 0
0.6729769 0.2454454 -0.6977527 0 0 0 0
0.6729711 0.2454476 -0.6977574 0 0 0 0
0.6729686 0.2454497 -0.6977591 0 0 0 0
0.6729665 0.2454535 -0.6977598 0 0 0 0
0.6729769 0.2454454 -0.6977527 0 0 0 0
0.02033855 -0.9511762 -0.3079776 0 0 0 0
0.01901267 -0.9518482 -0.3059797 0 0 0 0
0.01828749 -0.9525446 -0.3038495 0 0 0 0
0.01829528 -0.9535271 -0.3007515 0 0 0 0
0.02171217 -0.9550219 -0.2957392 0 0 0 0
-0.6726051 -0.2455501 0.6980742 0 0 0 0
-0.6726096 -0.2455495 0.6980702 0 0 0 0
-0.6726118 -0.2455501 0.6980677 0 0 0 0
-0.6726107 -0.2455516 0.6980683 0 0 0 0
-0.6726051 -0.2455501 0.6980742 0 0 0 0
-0.2143693 -0.9755736 -0.04797989 0 0 0 0
-0.2143693 -0.9755736 -0.0479799 0 0 0 0
-0.03827915 0.952561 0.301931 0 0 0 0
0.01064272 -0.9453032 -0.3260193 0 0 0 0
